# .PCD v0.7 - Point Cloud Data file format
VERSION 0.7
FIELDS x y z
SIZE 4 4 4
TYPE F F F
COUNT 1 1 1
WIDTH 1268
HEIGHT 1
VIEWPOINT 0 0 0 1 0 0 0
POINTS 1268
DATA ascii
-2.46586738 -1.80563013 1.851930328
-2.826482119 -1.881009146 1.883162319
-2.821219529 -2.002120923 1.878475486
-2.766665039 -2.547032153 1.885134655
-2.726031844 -2.457970185 1.925739291
-2.758639074 -2.252650045 1.872960441
-2.753755 -2.179436448 1.812630708
-2.747721392 -2.287304388 1.865550695
-2.805311285 -2.681501432 1.914409236
-2.831760982 -2.608107835 1.914628191
-2.858842081 -2.332379878 1.859135092
-2.798757159 -2.73114528 1.913669701
-2.811007828 -2.438275493 1.918576153
-2.799533518 -2.236587911 1.91903344
-2.836329593 -2.72496987 1.915603871
-2.825604274 -2.275696459 1.912535096
-2.722569949 -2.785084996 1.885526831
-2.828815759 -2.508169285 1.879257311
-2.909972545 -2.268175214 1.807183402
-2.877182593 -2.207771247 1.83392276
-2.813132781 -2.79532281 1.84837983
-2.727145524 -2.261370193 1.789624774
-2.762353849 -2.405831417 1.877653089
-2.808652941 -3.031702203 1.913095787
-2.82629467 -2.681202313 1.872811169
-2.790534287 -2.727812506 1.849052605
-2.685363733 -2.689456738 1.822481925
-2.824565675 -2.981177832 1.905072321
-2.812354786 -2.821583509 1.928788566
-2.796907414 -2.980556306 1.882638876
-2.90619633 -1.798439221 1.717580384
-2.93998673 -1.772618145 1.662952853
-2.894748632 -1.769905319 1.678921131
-2.471399279 -1.82689498 1.7883171
-2.913020664 -2.111991996 1.702080572
-2.356720097 -1.853391551 1.810913174
-2.925061828 -1.77523295 1.574555907
-2.880321075 -1.811016636 1.719541219
-2.886002859 -1.90880915 1.765551125
-2.860911207 -1.970556167 1.696954355
-2.85824687 -1.900045032 1.671844433
-2.891911851 -2.021997151 1.67874814
-2.910583359 -2.040426006 1.652133316
-2.849030005 -2.681849962 1.776804097
-2.879275238 -2.60928058 1.801925584
-2.704461175 -2.718033893 1.769248729
-2.73799124 -2.328557978 1.744760216
-2.78769319 -2.154453212 1.762959974
-2.744670776 -2.641804641 1.721805561
-2.888902778 -2.504057923 1.788009351
-2.842459222 -2.175462361 1.711026753
-2.795962375 -2.245420715 1.713510983
-2.885239396 -2.24963781 1.683642725
-2.786858245 -2.268426673 1.712662811
-2.741344731 -2.334058022 1.737768558
-2.766694343 -2.838839187 1.818895106
-2.690254838 -2.733144459 1.791223958
-2.829213223 -2.56417117 1.713924451
-2.744746881 -2.61227517 1.705312565
-2.849893928 -2.728720568 1.804653162
-2.860695029 -2.846396466 1.680195936
-2.808040332 -2.703230974 1.705584722
-2.853123738 -2.776991083 1.808795789
-2.826416077 -2.531871709 1.734912103
-2.909065188 -2.821101165 1.587208434
-2.802752863 -2.769890283 1.702856446
-2.824112717 -2.777555506 1.679934684
-2.794702378 -2.80175158 1.754865028
-2.923927734 -2.001486994 1.738161863
-2.917279687 -1.957014385 1.77000502
-2.931488878 -1.988254112 1.719011209
-2.94796298 -2.013324406 1.673030918
-2.924890259 -1.881711183 1.750161341
-2.985807822 -2.023661749 1.570183215
-2.933739022 -1.935925194 1.720677762
-2.937286343 -2.055985704 1.577895128
-2.950798838 -1.962793864 1.533042952
-2.950424424 -1.979580388 1.533142911
-2.963344893 -1.873422761 1.491627557
-2.897300718 -1.824086679 1.693747622
-2.943750565 -1.823014988 1.556262861
-2.938540567 -1.857301008 1.722687333
-3.007550523 -1.924345266 1.525533468
-2.975513671 -1.891645141 1.617678573
-3.001530506 -1.992687907 1.523160975
-2.991465986 -2.044471365 1.463697347
-2.932526065 -1.967221527 1.589851827
-2.997901042 -2.070714629 1.39275189
-3.001147374 -1.760358665 1.37187502
-2.971610602 -1.800572371 1.488198947
-3.008247331 -1.831560854 1.39412652
-2.988703403 -1.804325822 1.613742253
-3.030150147 -1.909739026 1.386884075
-3.021919364 -1.835899777 1.369746949
-3.042276501 -1.978114931 1.364493503
-3.024283451 -1.913171393 1.440759396
-3.007414608 -1.956085205 1.40472034
-2.983292375 -1.873103717 1.458010949
-3.017735975 -1.988527926 1.382707602
-2.923210849 -2.658396366 1.742606471
-2.904858696 -2.530185695 1.795622357
-2.923469961 -2.136951811 1.77517395
-2.930664122 -2.130558231 1.723524781
-2.935235871 -2.522174367 1.604347896
-2.922038925 -2.461445558 1.760707162
-2.945292677 -2.553230745 1.651209935
-2.937464937 -2.444972933 1.673942983
-2.929817701 -2.522350089 1.729593189
-2.915790604 -2.76645678 1.693852786
-2.905509373 -2.774843031 1.749371621
-2.931874983 -2.207219785 1.670758403
-2.878221419 -2.316874667 1.674516165
-2.883812241 -2.463111593 1.700446618
-2.933733906 -2.287728193 1.696565179
-2.928554359 -2.233025564 1.724856474
-2.943282066 -2.308316738 1.646440261
-2.923231767 -2.297518374 1.750878426
-2.873633412 -2.624077552 1.661546009
-2.910322121 -2.481487561 1.666076577
-2.953244624 -2.854934842 1.598254542
-2.950949904 -2.582765346 1.642260721
-3.006944245 -2.836634922 1.378109134
-2.894854859 -2.668589391 1.61555489
-2.951133559 -2.815221578 1.542816931
-2.995193051 -2.682607635 1.403256011
-2.972963817 -2.745734105 1.560311508
-3.012277848 -2.764588514 1.401216503
-2.955127734 -2.758718729 1.61730559
-3.000584454 -2.642818754 1.39516455
-2.989702481 -2.633285616 1.510575601
-2.960772257 -2.828872114 1.513780186
-2.957636254 -2.710872847 1.472233836
-2.960724332 -2.7054917 1.394388861
-2.955048545 -2.701361056 1.523769667
-2.963457929 -2.63667702 1.478229958
-2.984033071 -2.646041907 1.366496748
-2.993683694 -2.721619964 1.49553534
-2.97439332 -2.65290122 1.603744079
-3.006695407 -2.761227828 1.338947735
-2.967827416 -2.862187379 1.493782597
-2.96327049 -2.798712323 1.436566387
-3.004456882 -1.828434624 1.04906459
-3.014826631 -1.801591757 1.2032853
-3.014539553 -1.800872855 1.077131275
-3.014286798 -1.800179392 1.004539359
-2.994778202 -1.781434142 1.042230112
-3.006389054 -1.828788943 1.18113947
-3.00404788 -1.813278276 1.381559568
-2.990614582 -1.829924274 1.022679582
-2.971915882 -1.805897965 1.197222344
-2.981716922 -1.777876744 1.263736752
-2.98279432 -1.775883049 1.277104315
-4.130102407 -4.424932391 1.330585822
-2.614230708 -4.667586424 1.943580686
-2.730688909 -4.61357348 1.937734601
-2.689422075 -4.569189407 1.918117796
-2.787680879 -4.77014764 1.921415011
-2.742297628 -4.723678391 1.931859645
-2.738321891 -4.758527854 1.934445763
-2.776198874 -4.52063531 1.854917816
-2.739990267 -4.75527257 1.909526396
-2.688593118 -4.708873981 1.899093694
-2.513129528 -4.673789636 1.939403766
-2.568477566 -4.694392634 1.909310233
-2.80252648 -4.674714634 1.850585964
-2.798752791 -4.591163622 1.809665883
-2.736755386 -4.54805888 1.777271758
-2.812871132 -4.656828318 1.908495397
-2.815174386 -5.232907171 1.897734467
-2.809707629 -4.717236349 1.866792426
-2.80920848 -4.764246436 1.867053219
-2.581451333 -4.715679392 1.874738832
-2.521191673 -4.702939601 1.893977009
-2.581859692 -4.728938652 1.856320196
-2.726007167 -4.767319011 1.8133644
-2.870557437 -4.966712719 1.808690354
-2.784179839 -5.02937578 1.919242556
-2.767518592 -4.94220282 1.883353813
-2.62047116 -4.721216373 1.787878735
-2.764366837 -5.160798173 1.906372064
-2.75700701 -5.140396457 1.908235941
-2.797446245 -4.964818786 1.871939264
-2.757135194 -4.540272579 1.778190847
-2.818106709 -4.738502448 1.833177702
-2.763753526 -4.800036469 1.804174669
-2.610803761 -4.611278584 1.776544579
-2.578311852 -4.553443051 1.781558396
-2.550397285 -4.716569132 1.798934828
-2.672279098 -4.645104159 1.762415703
-2.651250426 -4.592153632 1.765203005
-2.815421669 -4.522269425 1.723745485
-2.81928444 -4.213210871 1.738900269
-2.767049861 -4.651068658 1.711940308
-2.794730207 -4.740092537 1.682447546
-2.777447641 -4.725996889 1.698556991
-2.846506207 -4.866140476 1.744118821
-2.874806555 -4.57962272 1.752107244
-2.893856704 -4.730231755 1.769175681
-2.870699571 -5.256539954 1.805241519
-2.852296487 -5.220843458 1.795997706
-2.817095665 -5.140113308 1.778754043
-2.845067417 -4.574761281 1.658579952
-2.888725734 -4.429404506 1.614770722
-2.856125142 -4.61741664 1.619745809
-2.887449569 -4.66419518 1.554107745
-2.787292782 -5.369559258 1.735098547
-2.809985764 -5.326642783 1.772590091
-2.834977474 -5.267379077 1.785257366
-2.723009487 -5.282928633 1.722927197
-2.819398369 -5.259088107 1.776709396
-2.731045171 -4.739432358 1.774966722
-2.78843358 -4.784443899 1.720400222
-2.884536939 -5.303546607 1.638541117
-4.214186843 -4.407549561 1.375665369
-4.228172643 -4.364381918 1.366548035
-2.847947672 -5.358373559 1.67418697
-2.846275675 -5.34795641 1.672918458
-2.748565637 -5.088269528 1.687469261
-2.770054299 -5.047147342 1.688923114
-2.859081769 -4.983598908 1.681048636
-2.845070798 -5.014328838 1.679591008
-2.847733132 -5.031229668 1.676909412
-2.854762964 -5.406770012 1.68004023
-2.780893283 -5.353370124 1.685021364
-2.85792972 -4.948443914 1.676334637
-2.771426127 -5.011886419 1.710161077
-2.826397453 -4.949928065 1.729838894
-2.839136664 -5.027651654 1.777102787
-2.840889676 -5.008256433 1.772020672
-4.363349199 -5.233475441 1.852879907
-4.466023182 -5.219555051 1.884205001
-4.417414919 -5.1752615 1.817582248
-4.402118472 -5.177550572 1.822520487
-4.281373567 -5.186215964 1.844556938
-4.257131211 -4.514660946 1.377638329
-4.34517252 -4.39184413 1.375902403
-4.408457624 -4.536658878 1.368910669
-4.277456786 -4.473366768 1.377556436
-4.218732259 -4.45917644 1.381082655
-4.189719613 -4.475771638 1.382243079
-4.248397646 -4.426491645 1.380283399
-4.290355867 -4.475607675 1.376803475
-4.358814934 -5.238790539 1.770355094
-4.611261022 -5.237326385 1.834200042
-4.509746741 -5.237704218 1.805485431
-2.913842689 -4.173677809 1.665482058
-2.844823361 -4.4916593 1.812893099
-2.988375476 -4.511676864 1.481185827
-2.917393608 -4.909591453 1.717431427
-2.907769361 -4.912561393 1.752580938
-2.902400774 -4.980072345 1.769802333
-2.904452172 -5.033168925 1.760363818
-4.128511888 -4.424768118 1.294786478
-2.931925992 -4.382863995 1.627227879
-2.871561746 -4.467784822 1.758173623
-2.93659072 -4.456345149 1.646576915
-2.966874632 -4.447994099 1.550309512
-2.993672156 -4.422280227 1.465568747
-2.9135048 -4.415706585 1.721102069
-2.946142487 -4.413082163 1.617197933
-3.021963418 -4.529186221 1.372856222
-2.946111201 -4.592172493 1.640532695
-2.981345785 -4.59667353 1.510036382
-2.979433833 -4.728518253 1.551863887
-2.989017397 -4.713155011 1.521057072
-2.934656477 -4.700482369 1.673064835
-2.919119947 -4.858305199 1.715175309
-2.928176358 -4.89073424 1.680835106
-2.945429237 -4.782372493 1.650812476
-2.982006646 -4.65299915 1.523734485
-2.946028555 -4.649222488 1.627428633
-2.918577288 -4.406550675 1.540043332
-2.91652324 -4.491319094 1.527817259
-2.906933817 -4.524422117 1.53978728
-2.980755442 -4.56339987 1.523832442
-2.908543056 -4.820279442 1.585547509
-2.941123664 -4.242422804 1.480137999
-2.961088181 -4.321244788 1.429720445
-2.95024066 -4.304484173 1.461153978
-2.913453628 -4.631273239 1.509859923
-2.88980146 -4.712380972 1.551504869
-2.944622759 -4.804965084 1.532380759
-2.875140333 -4.754244242 1.578484525
-2.940498734 -4.549103858 1.459242227
-2.952416126 -4.377003047 1.462005701
-2.956853815 -4.47135502 1.42942059
-2.982764746 -4.806799119 1.49181085
-2.96467572 -4.760846917 1.330271718
-2.956664149 -4.715033719 1.412102735
-2.981013438 -4.796625969 1.432879645
-4.235411654 -4.715665665 1.365035762
-4.150919584 -4.756280546 1.362513253
-4.329512074 -4.810746023 1.356618268
-4.31817664 -4.752049766 1.361412258
-4.368402904 -4.780618415 1.358694135
-4.161437228 -4.674032054 1.369003636
-4.437552745 -4.731445935 1.362033403
-4.435625577 -4.77366903 1.358671615
-4.211263257 -4.657517295 1.369896191
-4.138024478 -4.643172514 1.371674287
-4.161518454 -4.768622402 1.361434531
-4.123736555 -4.543452482 1.372277215
-4.130099159 -4.723477746 1.362268271
-2.882978321 -5.264436809 1.714343235
-2.894395555 -5.17149897 1.752558245
-2.882285982 -5.193746527 1.694873777
-2.910304551 -5.060487131 1.73624689
-2.876362476 -5.239123114 1.705499552
-4.127484282 -5.132040234 1.736165965
-4.250246441 -5.179716327 1.688009121
-4.249953231 -5.132064645 1.607596109
-4.374729764 -5.165435617 1.596216398
-4.232363003 -5.135624905 1.623174795
-4.290693721 -5.235421091 1.821559193
-4.146535882 -5.144884674 1.71492146
-4.281118612 -5.208203994 1.736107929
-4.257182011 -5.191935544 1.71054391
-4.356511836 -5.142971543 1.772494511
-4.217213158 -5.11112262 1.757462331
-4.175613254 -5.146388288 1.800871802
-4.256231558 -5.098342341 1.653973799
-4.403714962 -5.138932753 1.756735996
-4.31393649 -5.109503828 1.664499179
-4.28095496 -5.106180688 1.622284079
-4.226457206 -5.103037626 1.650925759
-4.109087634 -4.668060562 1.321642646
-4.113002339 -4.811825527 1.261563018
-4.101215453 -4.605839207 1.267048501
-4.284091604 -4.419146414 1.263967706
-4.31007233 -4.724552677 1.247581527
-4.297111816 -4.635751587 1.252566457
-4.358626525 -4.722887096 1.245685484
-4.294317115 -4.730350617 1.247932921
-4.241905232 -4.447530066 1.26426327
-4.386534278 -4.384412258 1.2615341
-4.403829177 -4.759880618 1.241985969
-4.276355724 -4.463381379 1.262063166
-4.345525922 -4.39434679 1.262707508
-4.314768279 -4.486081914 1.259357792
-4.106955009 -4.542419276 1.265003361
-4.255394581 -4.483390671 1.261913612
-4.320334499 -4.987294121 1.327429909
-4.297804935 -4.994586314 1.310121341
-4.313527266 -4.329765335 1.274060922
-4.24542814 -4.382987803 1.273466689
-4.21341983 -4.441339366 1.267394114
-4.128650692 -4.767328394 1.256892868
-4.18066393 -4.801048197 1.2526527
-4.113139218 -4.785045396 1.257334765
-4.139318001 -4.85036755 1.25376854
-4.204701273 -4.863665124 1.249300054
-4.197642687 -4.794648366 1.251784158
-4.246094991 -4.869482292 1.246548138
-3.009129953 -4.529513757 1.347181227
-2.969832559 -4.523017348 1.152887817
-2.972084475 -4.523366188 1.298450703
-4.437537495 -5.122201703 1.679280645
-4.488329765 -5.104038595 1.60964716
-4.588251893 -5.119911722 1.654334095
-4.551927136 -5.1150052 1.641130192
-2.973671769 -4.750263314 1.148246238
-2.976466489 -4.747854121 1.194602713
-4.372355379 -5.23182423 1.724438522
-4.464727345 -5.212702998 1.698870424
-4.738093491 -5.185603107 1.685916698
-4.507539666 -5.197341847 1.673198694
-4.445265682 -5.161555696 1.586912121
-4.606365349 -5.189550631 1.672781511
-3.001133695 -4.555389728 1.139217492
-3.005009589 -4.732555698 1.115645376
-4.555691898 -5.119148539 1.578063228
-4.489540945 -5.114622023 1.588540292
-2.993480902 -4.71671351 1.31902016
-2.973134417 -4.707049608 1.339696785
-2.985786613 -4.71231709 1.17456847
-4.200167303 -4.327236964 1.308510634
-2.951237831 -4.727869786 1.03149875
-2.992624407 -4.577268387 1.141073346
-2.957939222 -4.700612396 1.351501037
-2.980352084 -4.709850607 1.123599795
-2.955090548 -4.703882593 1.280867525
-2.952908189 -4.7148881 1.168971564
-2.978408199 -4.591456401 1.121386698
-2.961135259 -4.527783138 1.045292501
-2.961882456 -4.576434707 1.133615364
-2.959815717 -4.569330361 1.131096086
-4.595361782 -5.054750551 1.251104982
-4.508448357 -4.961999063 1.243939433
-4.42530894 -4.978797481 1.247659348
-4.57575679 -5.064508656 1.261813569
-4.174428751 -4.925305826 1.331833454
-4.140810928 -4.905111821 1.313956755
-4.407840306 -4.937377842 1.243939563
-4.222726325 -4.915559285 1.250794788
-4.341560918 -5.024736162 1.255887917
-4.219602403 -4.933290937 1.252716053
-2.967353569 -4.49007744 1.319632549
-4.493469849 -5.031458003 1.324017091
-3.013086371 -4.329345023 1.352614313
-2.939876713 -4.580582799 1.254666395
-2.937428106 -4.588006538 1.339019869
-2.969310536 -4.597609253 1.492080947
-4.303438992 -4.898167639 1.345740967
-4.181645225 -4.91400515 1.347430116
-4.333124456 -4.986451835 1.331660112
-4.164678323 -4.892882548 1.351126153
-4.353913433 -4.850975278 1.351068031
-4.24455248 -4.866668038 1.352366393
-2.933259821 -4.582345597 1.397552173
-2.947205544 -4.53382855 1.047872721
-4.565037546 -4.385119721 1.264545946
-4.584396158 -4.344401998 1.266824214
-4.568515583 -4.363139264 1.265601337
-4.851272912 -4.525262486 1.265534787
-4.772513068 -4.497094251 1.264804829
-4.738720507 -4.467427134 1.265266183
-2.894599162 -5.304030023 1.772769009
-2.583964599 -4.480436807 1.894252276
-2.754674737 -3.519891702 1.909595295
-2.698132536 -3.528549012 1.817814118
-2.858196145 -3.490469806 1.755911099
-2.851608206 -3.551231637 1.646888588
-2.705891103 -3.534387995 1.765018406
-2.853763609 -3.611411074 1.809190799
-2.820739952 -3.518784138 1.714677435
-2.752546744 -3.527666265 1.670090277
-2.915428294 -3.503352705 1.634942778
-2.969806923 -3.647827018 1.37735719
-3.008423943 -3.63137478 1.421005934
-2.972468027 -3.596970784 1.569013042
-2.997714591 -3.691139199 1.442714619
-3.019295914 -3.553940343 1.362362078
-2.797169677 -3.744239927 1.905816654
-2.920810976 -3.523628541 1.711941762
-2.901179456 -3.512753163 1.782649494
-3.031277199 -3.530434357 1.393834221
-2.82908003 -3.551848814 1.92392902
-3.016885891 -3.577569145 1.426284373
-2.949126566 -3.579029724 1.665302149
-3.043403694 -3.537153754 1.366131535
-2.793890811 -3.74005043 1.883173488
-2.701842399 -3.628730593 1.777242389
-2.728608193 -3.693554593 1.872877249
-2.83287495 -3.592804139 1.861764467
-2.688840789 -3.619663996 1.835107121
-2.71340363 -3.61681908 1.87704896
-2.71700562 -3.672907523 1.894867394
-2.806177374 -3.600002456 1.82936876
-2.865318207 -4.20323112 1.796746491
-2.830189234 -3.605961124 1.650197775
-2.829750509 -3.67350624 1.822871485
-2.890890557 -3.92849336 1.699134857
-2.850928296 -3.75941609 1.711035263
-2.653479263 -3.564959527 1.668419483
-2.849578865 -3.640466407 1.709505306
-2.796910751 -3.654926317 1.744445799
-2.908519445 -3.757661038 1.713519673
-2.86518331 -3.919738628 1.643174681
-2.826255407 -3.967281676 1.78916878
-2.806841502 -3.965138253 1.754221884
-2.8307551 -4.03218188 1.801926118
-2.860241826 -4.03148216 1.823383007
-2.802564923 -4.1947507 1.757656614
-2.817290323 -4.203327424 1.766471811
-2.832354469 -4.002726223 1.804892483
-2.839936492 -4.003469434 1.811852059
-2.772095953 -4.029074703 1.750574448
-2.766464865 -3.600542137 1.668002963
-2.668852014 -3.585910358 1.751417341
-2.843078981 -4.105500014 1.562022356
-2.729673236 -4.024105764 1.653835955
-2.72484566 -4.112012632 1.665927723
-2.714971828 -4.060395543 1.669933416
-2.850657687 -3.645358831 1.63351064
-2.920371218 -3.597254588 1.55185146
-2.91597971 -3.602906732 1.555250342
-2.913959641 -3.750642452 1.562732956
-2.944764015 -3.713477139 1.519832696
-2.934500822 -3.793082569 1.52921144
-2.807800773 -3.988653564 1.584844375
-2.805483939 -4.021447026 1.587504728
-2.799325401 -4.007534874 1.591693501
-2.896129389 -4.0851045 1.811566738
-2.930085117 -3.748549767 1.667444413
-2.910450171 -3.716542373 1.759745051
-2.938354481 -3.660152945 1.676171487
-2.937334167 -3.709178957 1.662118872
-2.961029646 -3.657467004 1.5925452
-2.946833874 -4.075027934 1.659437838
-2.951458566 -4.159481778 1.590780398
-2.950366818 -4.168305784 1.593916426
-2.915591596 -3.895541773 1.605528152
-2.964186449 -4.146077325 1.54149773
-2.962607952 -4.013786975 1.589087801
-2.985929056 -4.066176568 1.498834585
-2.959311291 -4.074752833 1.579816712
-2.999973161 -4.014428515 1.471321871
-2.897737986 -4.007018065 1.786666346
-2.92049451 -3.986435691 1.730705242
-2.92830479 -4.136723054 1.721475955
-2.929141487 -4.118674897 1.718322021
-2.967071483 -3.580841117 1.479376948
-2.879300193 -3.902375177 1.595200606
-3.020870404 -4.020922717 1.407271725
-2.987681881 -4.216364109 1.49540452
-2.980978182 -3.864988522 1.515569973
-2.963420531 -3.8314806 1.561828738
-2.959443043 -4.204956728 1.42724914
-2.99307296 -4.284129291 1.352039988
-2.952272996 -4.19016056 1.443133248
-2.966699454 -4.221258327 1.411077648
-3.006879968 -3.969938191 1.346254838
-2.944161434 -3.969191598 1.439031895
-2.960777191 -3.960161344 1.416890906
-2.917240583 -3.911354003 1.516797362
-2.917837347 -3.911866393 1.515238838
-2.981853766 -3.869702841 1.419348861
-3.017972142 -3.921070916 1.388093123
-2.985650113 -4.302843415 1.498173849
-3.02284507 -4.369372497 1.381564277
-3.034091354 -4.024253154 1.373360878
-2.997577952 -4.205323411 1.46958314
-2.995138093 -4.413228969 1.461508486
-3.025558523 -4.282419688 1.379857888
-3.001396629 -4.405454806 1.443292498
-2.969730712 -3.621924915 1.070557018
-3.000677069 -3.618565708 1.024540358
-3.017129756 -3.633173137 1.133500838
-3.013424037 -3.637419162 1.204750062
-2.998863522 -3.615008583 1.046955624
-3.015278382 -3.618480233 1.258568903
-2.972615672 -3.67789099 1.312621136
-3.00545096 -3.64520367 1.209225143
-2.969240391 -3.623448961 1.223053081
-2.967444693 -3.65492569 1.034072099
-2.968845113 -3.671913591 1.218644224
-3.025402762 -4.381871656 1.360249903
-2.871976931 -4.177271957 1.624193781
-2.877012664 -4.15149885 1.561646625
-2.344013113 -4.331962324 1.867471256
-2.549360433 -4.449135564 1.883389868
-2.282661501 -4.530223773 1.90101188
-2.486383146 -4.625514488 1.938714751
-2.515760353 -4.492365839 1.913655616
-2.407611769 -4.525567308 1.907812873
-2.41764721 -4.519257441 1.907572759
-2.433963677 -4.487885484 1.905066543
-2.305819559 -4.45755929 1.876450887
-2.321819855 -4.562049515 1.854126684
-2.422974647 -4.563061922 1.811951526
-2.355713027 -4.615201712 1.825290088
-2.49134731 -4.538296091 1.797112602
-2.44986247 -4.457486092 1.810460771
-2.454366074 -4.44005758 1.887781901
-2.314410705 -4.285842135 1.877469773
-2.344433682 -4.601636176 1.832596754
-2.305524732 -4.554620334 1.907428045
-2.314606139 -4.301499418 1.88890927
-2.305868172 -4.476708932 1.90169876
-2.389954475 -4.45243212 1.900911943
-2.420739329 -4.677657894 1.918291505
-2.506393048 -4.562232683 1.794487639
-2.424051475 -4.67727729 1.815863152
-2.300060474 -4.700171354 1.892268697
-2.561041443 -4.460395542 1.870874597
-5.212119328 0.6483894571 2.369956603
-5.205636854 0.7237631565 2.252551186
-5.204251194 0.8329102398 2.02375764
-5.206168617 0.8501659853 2.188129518
-5.207048412 0.7670564958 2.345887649
-5.207310344 0.8168471058 2.325436666
-5.205930134 0.8644721149 2.152803708
-5.205553947 0.8358149347 2.143414046
-5.206121249 0.7682728559 2.257758605
-4.712840445 0.6190214375 1.831272652
-4.718970131 0.03485392461 1.805448954
-4.716667777 0.09359486638 1.818188556
-4.721008163 -0.232413998 1.809021152
-4.726332126 -0.3952483906 1.825010006
-4.729986387 -0.5031732404 1.836520905
-4.73307799 -0.5244126121 1.856044836
-4.721854334 -0.08878035281 1.835235976
-4.719774419 0.1507368001 1.85355543
-5.551175467 0.3010801079 2.247765805
-5.278785544 0.6023189853 2.345261087
-5.286584847 0.5776964048 2.342818876
-5.710380971 0.07606236928 2.191851123
-5.295135544 0.5564359908 2.34001615
-4.860947233 0.6886716685 1.860972289
-4.922868144 0.5883215829 1.862399008
-5.066910048 0.77157552 1.865648651
-5.130641717 0.5727466548 1.867132964
-4.875192315 0.680706787 1.861297998
-5.184130133 0.5124720079 1.868361002
-4.952043119 0.8276600752 1.863023613
-5.176154931 0.2711679092 1.868219479
-5.081193897 0.1732864516 1.86607331
-5.12649002 0.5814514597 1.867036976
-5.147086556 0.7228001413 1.867482514
-5.01341727 0.8354371806 1.864419918
-5.200063949 0.5162251191 1.868723219
-5.189769062 0.1931508722 1.868542457
-5.194602515 0.286735058 1.868636977
-4.886420963 0.5976192116 1.861567497
-5.179892814 0.4916013572 1.868267978
-5.035569801 0.2188587015 1.865026799
-5.084685678 0.6221007719 1.866078265
-5.096332319 0.5114539485 1.866361861
-5.106488943 0.3355083123 1.866622374
-4.791052924 0.7302130392 1.859373772
-5.112307711 0.6036038269 1.86671034
-5.20073372 0.006369225426 1.868823171
-4.905269339 0.7042832855 1.861978988
-5.080950628 0.3467011443 1.866038962
-5.184246399 0.4798185832 1.868369074
-5.19849078 0.2524661475 1.868731212
-5.147551366 0.4466516742 1.867538973
-5.030378037 0.7627149603 1.864818225
-5.210427951 0.06698978921 1.869033855
-5.169471719 0.4471997234 1.868038047
-5.08501262 0.5120023453 1.866104
-4.964093087 0.4756591597 1.863356488
-4.810756412 0.7352010119 1.859821627
-5.007572107 0.6979555803 1.864309652
-5.10944002 0.71514823 1.866626507
-6.027289687 0.8811445535 1.257044463
-6.047465498 0.8817703958 1.254180455
-5.956431954 0.8787383248 1.20391034
-5.808860092 0.8846649909 0.9962321891
-5.938231393 0.8799544712 1.140130952
-5.886192781 0.8843715223 0.9961277397
-5.960618456 0.8797602907 1.0564923
-5.924492073 0.8823537011 0.9968871636
-5.890203941 0.8831080878 1.08599111
-6.055589772 0.9028286865 1.083493534
-5.936934716 0.9341261581 1.181863734
-5.971808738 0.932633577 1.409396128
-5.649297089 0.9330976712 1.017638668
-5.838761185 0.9330742385 1.215789887
-5.960686801 0.9337620511 1.253070717
-5.670915534 0.9322356834 1.150564501
-5.840713762 0.9321519648 1.336199706
-5.859508985 0.9333720531 1.198927025
-5.912766012 0.9340223536 1.170296724
-5.940637867 0.9354279575 1.018556802
-6.036543117 0.9347437321 1.205175459
-5.997333447 0.9358511181 1.022627655
-5.986530556 0.9329845558 1.379501605
-5.804225779 0.9332716073 1.154881716
-6.020171147 0.9317699844 1.570073539
-5.621651524 0.931844126 1.150090832
-5.962017744 0.9338816067 1.239093364
-5.843748971 0.9319380806 1.366783696
-5.822062085 0.9325715446 1.263124587
-5.90929178 0.9331981262 1.272530198
-5.95019035 0.9340267358 1.208280224
-5.964722077 0.9338772178 1.242442185
-5.771135474 0.9340830002 1.016635407
-5.775179716 0.932427794 1.233291258
-5.813324756 0.9346600464 0.986009792
-5.582681287 0.931703747 1.127973951
-5.985067042 0.9338811664 1.262890052
-6.050563019 0.9050279994 1.447440746
-6.056413339 0.9162702644 1.008103247
-6.050739261 0.8955422102 1.464220011
-5.923394994 0.8784217595 1.255995351
-5.809301624 0.8615459967 1.246552137
-5.918051566 0.8791821338 1.239854928
-4.971766561 0.1145199174 1.863497303
-4.829930933 0.1735878316 1.860171157
-4.775999594 0.02228790667 1.858857803
-4.823330964 -0.2960343228 1.859884192
-4.855174182 -0.4737302297 1.860584922
-5.111000569 -0.2334509151 1.866681288
-4.879866329 0.3842062599 1.861406937
-4.840696114 0.0370572542 1.860386655
-5.00383372 0.1491585465 1.864262731
-4.799186493 0.3348101305 1.859491712
-4.84939996 0.4554617722 1.860708869
-5.105260762 -0.03959712709 1.866600266
-4.947108392 0.04299980901 1.862896163
-4.799473403 -0.5712365139 1.859244921
-4.73957144 -0.09783462175 1.857965675
-4.775296482 0.2747227963 1.858911875
-5.168923273 -0.05499994459 1.868096306
-4.899380446 0.3875927859 1.861867779
-4.730500598 0.7316331279 1.857984023
-4.93216361 0.1040671564 1.862561045
-4.727053572 0.7065833375 1.857895776
-4.819004978 -0.07213375034 1.859844898
-5.152328332 -0.2029881089 1.867663795
-4.725836076 0.4358471563 1.857791319
-5.103961136 -0.003843418504 1.866579643
-4.737608864 -0.2086359766 1.857888416
-4.803959478 -0.1483480721 1.859468989
-5.180248243 -0.1240124215 1.868343891
-5.205122819 -0.1418549421 1.868925124
-4.745114362 -0.3595573143 1.858023065
-4.903772096 0.195354804 1.861917481
-4.895018699 -0.01384405244 1.861652645
-4.997968491 0.2590858256 1.864155267
-5.076639583 0.06473602568 1.86595494
-5.054019248 -0.2103460921 1.865344861
-5.159260682 -0.2133521996 1.867824271
-5.021845299 -0.2116383343 1.864586247
-4.793875604 0.2844812714 1.859352465
-4.734906711 0.4016896582 1.85799553
-4.848479068 0.3818476891 1.860666566
-4.820030346 -0.4197897596 1.859771773
-4.954397581 0.1260471347 1.86309119
-4.810791563 0.07505374045 1.85969252
-5.088101673 -0.06416681074 1.866188997
-4.990735685 0.06020843381 1.863929154
-4.735074002 0.6058033186 1.858056593
-4.767919831 -0.1779631088 1.858611346
-4.813173172 -0.002846412484 1.859726848
-4.975483943 -0.01728427613 1.863548027
-4.746023987 0.3667862217 1.858247766
-4.827779203 0.523378205 1.860218333
-4.890104168 0.3952065504 1.861651293
-4.761090034 0.1278705724 1.858535972
-4.95381654 -0.2376920633 1.862975705
-5.047866259 -0.08705079358 1.865234355
-4.978631158 0.7401504044 1.740740915
-4.823347428 0.5741253627 1.773444061
-4.849829406 0.5447465952 1.761985516
-4.844627865 0.553104987 1.764499998
-4.935258023 0.6701249821 1.747464235
-5.212157209 0.5635729961 1.883781887
-5.216706772 0.408548578 1.918522004
-5.206647595 0.6729063649 2.163087775
-5.213810185 0.4913514333 1.961565626
-5.208589531 0.570339727 2.327102176
-5.224867847 0.1450560098 1.92102488
-5.20987521 0.6156030802 1.971815094
-5.22005904 0.2542460816 2.108387429
-5.211254269 0.5432961783 2.086115182
-5.228735451 0.02677207106 1.89520917
-5.226259028 0.09459160535 1.944192706
-5.20795221 0.6936338429 1.905872248
-5.2130958 0.4761642198 2.118141028
-5.226913107 0.0733681128 1.944826091
-5.21469702 0.4616656565 1.966153645
-5.227498646 0.04729034323 1.974406566
-5.213793358 0.4449601287 2.153943784
-5.213876904 0.4633259861 2.067631769
-5.212022387 0.4961750309 2.177845082
-5.214602839 0.456281255 2.000659303
-5.220289579 0.2671048546 2.025240634
-5.206967317 0.6455905517 2.232839991
-5.216806757 0.3582351473 2.111553582
-5.212661959 0.4823784392 2.149951175
-5.206544426 0.7066930797 2.038219076
-5.225425113 0.1312818429 1.903906357
-5.20569617 0.7202162103 2.094787367
-5.209888953 0.5815112035 2.109742008
-5.210769239 0.5640415653 2.065121346
-5.208914601 0.623131684 2.067789218
-5.213418253 0.45197286 2.174725668
-5.210287208 0.5325104707 2.258010901
-5.206081237 0.6968047408 2.13990793
-5.228890583 0.01213026526 1.934742673
-5.217200002 0.3495246211 2.095335816
-5.215379624 0.4360098618 1.981188599
-5.221581976 0.2340267135 1.990185692
-5.223189605 0.1758910617 2.016219034
-4.739564072 -0.0513502354 1.799920595
-4.733035722 -0.0133384514 1.800385127
-4.88227488 0.1398853231 1.790492654
-4.722122547 0.4026980143 1.801412307
-4.835641447 0.04342363456 1.793549255
-4.765948065 0.3002051321 1.798402416
-4.762662971 0.01590278582 1.798420417
-4.778849266 0.1860758922 1.797456677
-4.728345971 0.03956937548 1.800737036
-4.77256163 0.3562407455 1.797999045
-5.3691082 0.6965390846 2.312514004
-5.371072181 0.785087817 2.313803917
-5.378225763 0.7576788366 2.310638966
-5.500969719 0.7918975198 2.267670208
-5.425719681 0.8436948538 2.295648167
-5.766713799 0.8781447406 2.174914957
-5.605627489 0.8313005827 2.231262644
-5.338669713 0.6833612394 2.323064115
-5.29069094 0.7732164945 2.342179618
-5.430353397 0.78605387 2.292701795
-5.436093797 0.8609852288 2.292340057
-4.709244178 0.8230439649 1.853576357
-4.83465272 1.149449671 1.795298627
-4.963637144 1.028924722 1.782325784
-4.996868267 1.128643477 1.789091708
-4.719848379 0.7046114358 1.801225915
-4.719750382 0.8362167175 1.806978025
-4.853247002 1.030733097 1.783848442
-4.853023751 1.050482826 1.785313896
-4.822314847 1.105468227 1.789815634
-4.906079568 1.011919905 1.781714875
-4.860365666 0.9779398664 1.85925613
-4.918212925 0.8706590308 1.861778455
-4.836563882 1.028968753 1.858146291
-5.064753233 0.9137904253 1.864875846
-4.736287145 1.061052477 1.855382759
-4.80954657 0.8284364626 1.859588643
-4.96878426 0.9733143434 1.861929736
-4.811890766 0.945774512 1.858418646
-4.74423381 0.9941775765 1.856274351
-4.855897078 0.9705002438 1.859225709
-4.790306709 1.065095306 1.856648521
-5.033395039 0.8600361379 1.864678535
-5.342447233 0.862474042 1.007952841
-5.147920777 0.3497433349 1.090595596
-5.144871429 0.5432964322 0.9904549458
-5.146881336 0.4156018677 1.056697006
-5.149862882 0.1381148824 1.330781738
-5.148935692 0.2140539663 1.266217693
-5.151159354 0.09160951735 1.301908553
-5.150655504 0.06758646248 1.397177353
-5.151594835 0.05731746796 1.329487824
-5.14759655 0.309713234 1.200958827
-5.150097386 0.1035023704 1.377870191
-5.144127452 0.5368024664 1.073271211
-5.146712156 0.3675126608 1.168593553
-5.145484071 0.4643079694 1.090639531
-5.243132987 0.4079175086 1.060654571
-5.227710434 0.5442086574 1.015507842
-5.205128418 0.3668017149 0.9945040808
-5.229836941 0.5560667523 1.01806575
-5.215819863 0.4258186079 1.007436513
-5.140508864 0.5695909039 1.378997859
-5.141466823 0.6950656059 1.010083275
-5.141804859 0.6849394811 0.9964845354
-5.151112645 -0.01263297989 1.519397437
-5.134138365 0.8150956026 1.518116904
-5.146154527 0.3558388859 1.247523757
-5.14368554 0.3729551841 1.468660282
-5.143454606 0.3783774104 1.481155388
-5.149847948 0.07254319689 1.468932788
-5.141526997 0.630946207 1.14120297
-5.146564167 0.3200467598 1.281448416
-5.13807154 0.8166891055 1.103993844
-5.141822459 0.6253116644 1.122424774
-5.137257259 0.7944984068 1.236575357
-5.145353751 0.3833434802 1.272201692
-5.140414403 0.5054107169 1.52639513
-5.13893995 0.6320279541 1.409028318
-5.145457627 0.2784585687 1.486115433
-5.140714479 0.5620445615 1.373698525
-5.143566802 0.4830512122 1.245131395
-5.14390952 0.3991726075 1.389089912
-5.135777917 0.7621622212 1.460344692
-5.146412265 0.3149029346 1.308333052
-5.138061319 0.6612817001 1.438087763
-5.14209263 0.6277220517 1.089047766
-5.141240308 0.5878189677 1.263558002
-5.136206638 0.7143433767 1.518049204
-5.134606657 0.8621238625 1.368438994
-5.141556111 0.4696878982 1.483727523
-5.149748692 0.06567907587 1.494006502
-5.144325543 0.359462539 1.430743881
-5.135430988 0.7820720642 1.453906149
-5.139436841 0.5757763544 1.477685217
-5.140350597 0.6372612573 1.250511752
-5.147643105 0.1768784355 1.475583218
-5.143558921 0.4418685578 1.334205724
-5.138882155 0.6279499163 1.42380239
-5.136052358 0.7847671763 1.383246331
-5.14998899 0.09968224112 1.39604795
-5.13666314 0.7675099163 1.356448536
-5.136117244 0.8305146999 1.278437219
-5.14980514 0.08386460514 1.449141873
-5.145112943 0.3030315598 1.469449856
-5.14194452 0.4326593512 1.522518672
-5.137600898 0.8276690154 1.129609814
-5.144152787 0.4215677086 1.315696548
-5.149875743 0.04645922031 1.521926461
-5.140070538 0.6944817394 1.157136675
-5.334060244 0.4607694104 1.17325302
-5.268272309 0.5731813131 1.064916791
-5.223417258 0.6443449866 0.9925120791
-5.303426929 0.5323834431 1.117672519
-5.249425234 0.6319351068 1.026805654
-5.246948931 0.3018250658 1.089175991
-5.199034756 0.3358582752 0.9933946876
-5.205870386 0.3089766444 1.01647193
-5.261472815 0.3047732435 1.112541099
-5.219823085 0.299067941 1.044362844
-5.382624324 0.333201449 1.244556451
-5.342673003 0.3043263593 1.211689587
-5.393582675 0.3588675885 1.251156039
-5.367463209 0.4436864261 1.215553194
-5.459792189 0.3023126569 1.319836716
-5.147849968 0.06070389883 1.53190211
-5.657537366 0.8675966041 1.025156888
-5.739995056 0.8800126876 0.9888335688
-5.541796943 0.8568203326 1.001754137
-5.591376891 0.8617990304 1.007725708
-5.618523566 0.8162188175 1.169826208
-5.699824783 0.85941691 1.07510116
-5.589638159 0.856747537 1.061126447
-5.689310502 0.8506760385 1.095387513
-5.055087053 0.8912922983 0.9886806754
-5.638123286 0.9345779908 1.470508885
-5.807908774 0.9331312174 1.496197678
-5.45588482 0.9331922973 1.154046218
-5.531841534 0.9318702765 1.099201495
-5.521481913 0.9340605458 1.304279444
-5.552310014 0.9333274052 1.262694318
-5.602906233 0.9342131423 1.399810784
-5.465002796 0.9338353553 1.22628257
-5.881445878 0.9321578041 1.47323127
-5.536124626 0.9325599982 1.171243552
-5.688082269 0.9321364331 1.279891224
-5.505626057 0.9330266758 1.186958812
-5.459219609 0.9326785776 1.106840967
-5.707751822 0.932099093 1.295673789
-5.520916966 0.9337157894 1.269827955
-5.637164368 0.9350071096 1.511746855
-5.628832529 0.9335636252 1.361598673
-5.504109522 0.9332123902 1.203716384
-5.590246228 0.934743134 1.439392964
-5.458172853 0.9337110881 1.207311047
-5.472449444 0.9330483549 1.156277972
-5.695248523 0.9342294379 1.492740491
-5.729570034 0.9323836983 1.345231615
-5.058899441 0.8672294607 1.249544764
-5.06247997 0.8688348119 1.039760778
-5.057398239 0.8671575242 1.257755534
-5.118729742 0.8693850595 1.016680608
-5.747198762 0.8479105448 1.143975684
-5.747865719 0.848929718 1.247706059
-5.476108796 0.7401227058 1.152447998
-5.512434374 0.8148388787 1.124809127
-5.49534372 0.7640758214 1.147083127
-5.275001782 0.7264061767 1.01534349
-5.266810869 0.6977322511 1.016457059
-5.384802776 0.7656858474 1.108771664
-5.281689251 0.6682773318 1.042887997
-5.35731944 0.5611596429 1.162254484
-5.282616822 0.6891092668 1.034806133
-5.296466926 0.6847027418 1.050109462
-5.503553619 0.6935591874 1.201147625
-5.567160846 0.7217380064 1.213483533
-5.637438746 0.6970175228 1.269876576
-5.463469597 0.7169768074 1.161849018
-5.645922201 0.6304367156 1.325375002
-5.516372262 0.5843738371 1.263694753
-5.495819952 0.640574973 1.228084838
-5.619234112 0.6095878115 1.320186472
-5.497677482 0.5302328285 1.273110949
-5.410490338 0.5515600585 1.208268834
-5.61916464 0.578778325 1.332378304
-5.067672003 0.8658694799 1.459409456
-5.127622214 0.8685342538 1.523387552
-5.123290985 0.8687224644 1.363336305
-5.105573992 0.8676589778 1.457090003
-4.842204536 0.9603436935 1.781929676
-4.734554279 0.6593753027 1.798360133
-4.828056287 0.8230077397 1.785042514
-4.798016397 0.7417056393 1.789601281
-4.809363991 0.8221692569 1.787394094
-4.727702753 0.9373597236 1.796508575
-4.765119586 1.069593993 1.790528359
-5.990813606 0.4152182349 1.632918284
-5.964731803 0.3691330106 1.618948947
-5.913171891 0.3412334988 1.586073288
-5.970686377 0.506218199 1.611604632
-5.921693419 0.4429048189 1.583428721
-5.981257008 0.4536878732 1.623192693
-5.891256509 0.2512197453 1.578604238
-6.018949127 0.6896070862 1.580174544
-5.951720776 0.5334519959 1.589762841
-5.892138848 0.5541502517 1.535000305
-5.905781717 0.5118867117 1.562460434
-5.918152986 0.534199926 1.563249693
-5.842431353 0.5824198517 1.477282752
-5.898849627 0.7445918522 1.442289661
-5.831950117 0.5448761894 1.487895682
-5.996372297 0.748624522 1.535004249
-6.048780468 0.8262539674 1.506016033
-6.053446109 0.8658254539 1.454547053
-5.915527131 0.8271445721 1.354472666
-5.901808478 0.8454654305 1.321981872
-5.936301898 0.8564549554 1.321766169
-6.00883862 0.878433104 1.374704642
-6.019146632 0.8327174238 1.459756634
-5.964387933 0.8175732239 1.43259089
-6.053750115 0.8916359133 1.520104707
-6.056009743 0.8883465037 1.529281027
-6.068232186 0.890235674 1.724878103
-6.027342846 0.632809727 1.612243672
-6.04377116 0.6424289188 1.638595473
-6.096955548 0.7907057818 1.675260823
-5.877935049 0.9321532616 1.70327139
-5.948214919 0.9275081886 1.738588082
-5.915092599 0.9293908718 1.727329933
-5.825512824 0.9342880412 1.660645402
-5.830566681 0.9340923438 1.631346678
-5.78735848 0.9344260798 1.611563528
-5.822138369 0.9343160607 1.659494985
-5.984207471 0.9387859686 1.756551471
-5.861647381 1.024305011 1.781197554
-5.822904619 0.9514015414 1.754885208
-5.807725751 1.03647925 1.782254387
-5.656913987 1.113954623 1.796424871
-5.713934887 0.9443759827 1.748088208
-5.390356621 0.8696747643 2.222715242
-5.625066681 0.8753700471 2.202057788
-5.246803999 0.8661921073 2.257343659
-5.239714059 0.8660179924 2.19019599
-5.308855704 0.8676873912 1.911994563
-5.768914942 0.878858468 2.121380199
-5.386915168 0.8695933223 2.290443016
-5.211024793 0.8653258478 2.323478319
-5.453321681 0.8712041465 2.266904455
-5.232768951 0.8658500232 2.208928186
-5.220290697 0.8655419243 2.036631079
-5.595697102 0.874656471 2.174681428
-5.286543392 0.8671474675 1.962553976
-5.271574064 0.8667955347 2.33276652
-5.217955989 0.8654823399 1.941114657
-5.533672362 0.8731518729 2.194621123
-5.445593582 0.8710131434 2.154007083
-5.410436585 0.8701617285 2.211812928
-5.279033783 0.86697698 2.346270665
-5.273295838 0.8668363519 2.301212962
-5.563463269 0.8738738927 2.163861121
-5.291360612 0.8672737189 2.267696596
-5.404687362 0.8700238855 2.266606639
-5.799787233 0.8796084618 2.147129332
-5.747656448 0.8783417006 2.093020879
-5.278269623 0.8669543016 2.211326779
-5.404164348 0.8700032071 2.005915498
-4.962262817 1.110442837 1.858029427
-4.945373662 1.117744047 1.857606829
-5.87672937 1.065161815 1.869946727
-5.898857633 0.9819817273 1.872806214
-5.580111822 0.9675693197 1.869598137
-5.70610533 1.141280542 1.865603545
-5.202226455 1.073010977 1.861956915
-5.218399568 1.053334016 1.862758936
-5.711705853 1.135516682 1.865848385
-5.658642286 1.064106469 1.86747593
-5.649641448 1.051742483 1.867759867
-5.665061167 1.09947066 1.86644192
-5.8021263 1.055666361 1.869387635
-5.714464113 0.9726546166 1.870981347
-5.886193854 1.021827398 1.871412744
-6.017264525 1.058880226 1.871756966
-5.177334623 1.135008074 1.85972921
-5.051572076 1.143304143 1.858025477
-5.578062605 1.122105186 1.864734115
-5.62359697 0.9802483286 1.869700247
-5.55087274 1.115893309 1.864616522
-5.640020193 1.023106535 1.868546363
-5.627805522 1.147738353 1.86450231
-5.78516065 1.024821684 1.870158994
-5.476051104 1.082469615 1.86480442
-4.881502824 1.115329467 1.85694916
-5.526229643 1.145337121 1.863411333
-5.489028993 0.8719569229 1.957241594
-5.547142964 0.8726259879 1.905997139
-5.717576581 0.8762180023 1.912271241
-5.721440737 0.8760699069 1.890364171
-5.809833542 0.8784677276 1.944998779
-5.823698024 0.8793008123 1.997466507
-5.920378748 0.8810408829 1.972442998
-5.745493468 0.8767105678 1.904095979
-5.564864527 0.8736108957 1.965382236
-5.555445994 0.873337834 1.957873314
-5.872229955 0.8806172029 2.027451149
-5.550500615 0.8728422154 1.920093973
-5.623952021 0.8747136135 1.953859641
-5.042724548 1.114741712 1.790079153
-5.077185839 0.9725078483 1.745915622
-5.424388754 1.156618107 1.820850477
-5.650845962 1.156232737 1.849709367
-5.530008903 1.157814693 1.820597349
-5.452799263 1.153937171 1.850700775
-5.928126976 1.157844915 1.864280784
-5.04055208 1.1339713 1.79053608
-5.530932628 1.123735674 1.803236615
-5.291179138 1.120223818 1.796590519
-5.342160919 1.123594814 1.798138309
-5.239016906 0.9952283119 1.788775016
-5.309474693 1.104934832 1.796300051
-5.291210058 1.121285443 1.796645784
-5.312833092 1.080702727 1.795148208
-5.26244046 0.9771804261 1.788481395
-5.513084612 1.07518265 1.798763221
-5.482791223 1.010258143 1.791284423
-4.993806807 0.8962267268 1.738028912
-5.541567515 0.9373970259 1.870142954
-5.230720894 0.8727987763 1.868788824
-5.137599583 0.904873119 1.866698128
-5.455249269 0.8924873231 1.870650681
-5.261829998 0.9864801447 1.865411283
-5.585302657 0.9013787853 1.871811454
-5.701784767 0.8892296474 1.873510115
-5.052900642 0.9528655798 1.864179898
-5.342887078 0.8858486604 1.869613623
-5.525139491 0.9390283278 1.869906075
-5.336437103 1.007167486 1.865566467
-5.40188652 0.8846298005 1.870312319
-5.516910272 0.9174641797 1.870520764
-4.975281069 1.081988011 1.859082404
-5.244084231 0.9590581872 1.866111652
-4.970118962 1.146951335 1.817420179
-5.062004927 1.148341104 1.811354698
-5.373164173 1.155130841 1.809547639
-4.817526219 0.676377875 1.781772869
-4.873587846 0.6645586532 1.765974105
-4.9421713 0.859227181 1.756223962
-4.736536471 0.552025914 1.798119736
-4.89613829 0.8511646266 1.768382858
-4.863321897 0.7114604326 1.770915997
-4.876163522 0.7207950027 1.767848573
-5.223872656 0.9592022549 1.773723878
-5.058025838 0.8490022683 1.689010025
-5.515755045 0.9335836694 1.754599787
-5.656765552 0.9351116204 1.714979349
-5.470768448 0.9330448208 1.707323666
-5.401867929 0.9323331346 1.767377252
-5.054770319 0.901336967 1.529143799
-5.052032665 0.890415497 1.419696735
-5.048367268 0.8753357647 1.572035566
-5.057164973 0.9117334966 1.073493754
-5.586867411 0.9486403851 1.762691224
-5.549122906 0.9704324725 1.773201814
-5.567904879 0.9501883801 1.765087757
-5.597592767 1.115684098 1.800348514
-5.112273581 0.7272231661 1.673402453
-5.331865669 0.9328636761 1.691801067
-5.336861998 0.9324682372 1.715711097
-5.323629119 0.9317943811 1.75353158
-5.285338423 0.9312105213 1.782694301
-5.252042692 0.9313429916 1.770432922
-5.118560148 0.6873835333 1.608937128
-5.719728223 0.1926356222 2.188298269
-5.700554422 0.3289619129 2.195410365
-5.891217177 0.7767992122 2.130096567
-5.875091019 0.6244163992 2.135277389
-5.696095519 0.4681886935 2.197386745
-5.541059906 0.5853890425 2.25193956
-5.668843091 0.6152064405 2.207355238
-5.530543255 0.4389025869 2.255176949
-5.872486836 0.08002703901 2.134555277
-5.696879739 0.4557280596 2.19707521
-5.864080249 -0.04398197862 2.137122382
-5.861187142 0.2720495744 2.139081565
-5.877176515 0.7184949176 2.134830417
-5.589705363 0.7388198068 2.235392945
-5.599309066 0.7608229216 2.232101419
-5.694317731 0.7075858761 2.19872619
-5.566398324 0.7075346325 2.243447401
-5.697618913 0.1760721629 2.19597814
-5.578123183 0.5447515032 2.238860158
-5.551954016 0.3295350916 2.247363645
-5.843936482 0.8337902236 2.146797079
-5.620980244 0.4716715252 2.223657924
-5.760306587 0.1634481167 2.174024309
-5.740489112 0.350291964 2.181512932
-5.832116649 0.4677036884 2.149831517
-5.814568951 0.6688105448 2.156569386
-5.418443429 0.6868988752 2.295111404
-5.6787049 0.2926685279 2.202940245
-5.545175226 0.5757210134 2.250471827
-5.536566123 0.6184957854 2.253609895
-5.716297067 0.2021529474 2.189526362
-5.892059823 0.2878015939 2.128335535
-5.89995042 0.4436189196 2.126044212
-5.876087928 0.7107806004 2.135187859
-5.745626402 0.2288891014 2.179352835
-5.616121393 0.4602391519 2.225322323
-5.830842365 -0.01825646513 2.148819686
-5.641926445 0.2574041657 2.215692453
-5.886305696 0.4863233814 2.130942551
-5.474266023 0.4492294347 2.274882763
-5.80853687 0.07605187957 2.156900634
-5.622848057 0.4739607777 2.223011791
-5.607947992 0.5957167682 2.22858607
-5.826815851 0.6617274686 2.152266558
-5.857233982 0.8462605975 2.142185593
-5.586124399 0.5166636138 2.235978654
-5.47392277 0.519788797 2.275214365
-5.794669726 0.06545291279 2.161716883
-5.509024812 0.560981413 2.263066019
-5.909203108 1.025590374 1.793766476
-5.092537584 0.8326451015 1.645747291
-5.946778954 0.7530275528 1.878319959
-6.007543851 0.7786613393 1.876357711
-5.998834426 0.9119691187 1.874314901
-6.267621134 1.060465973 1.865039456
-6.074631315 0.9642995455 1.87152188
-5.963596418 0.7276252236 1.878328229
-5.94713778 1.048969614 1.809304339
-5.997530497 1.020669798 1.835324175
-6.052462507 1.149352795 1.799212749
-5.888218928 1.122245283 1.797884078
-5.780533786 1.160944539 1.80459699
-5.81453681 1.133834954 1.800477643
-6.078142608 1.045246649 1.777506569
-6.06611167 1.161313686 1.837726495
-5.788010311 1.160413763 1.820580679
-5.929124908 0.8449932373 2.064501823
-5.933565637 0.8364212644 1.956288402
-5.937580018 0.727967408 1.879967298
-5.927200779 0.8711834698 2.110256133
-5.934888563 0.7004848477 2.03181681
-5.93729532 0.5916444211 2.12719051
-5.934118841 0.68213441 2.116392221
-5.935339929 0.7295976824 1.942493738
-5.931036216 0.7926212837 2.056836664
-5.134311543 0.1473381909 1.586395416
-5.831626809 0.6995881766 1.414911155
-5.781960394 0.5482177475 1.448787428
-5.747991473 0.5670509692 1.419845135
-5.822645068 0.6319311477 1.438193196
-5.706941408 0.471782294 1.43281638
-5.612720544 0.5076127258 1.357012264
-5.666638113 0.4806160222 1.403026226
-5.578960138 0.4965198165 1.339564018
-5.495499705 0.5035570052 1.282442773
-5.553374133 0.3710604594 1.365863231
-5.492087595 0.3203511148 1.342142846
-5.603552908 0.3428822167 1.407615549
-5.58226373 0.2952551049 1.408991754
-5.425188706 0.449078543 1.257270295
-5.519737958 0.4208803759 1.327965057
-5.566128628 0.3280418984 1.387964312
-5.614833288 0.3983431183 1.39720217
-5.585163506 0.3037748549 1.40815308
-5.71351675 0.7185153838 1.320349997
-5.668740799 0.7644131496 1.235076939
-5.274686809 0.9330299115 1.372043082
-5.326281965 0.9332429137 1.200540622
-5.386791974 0.9337088946 1.563485982
-5.402124395 0.9338048567 1.597755125
-5.40108324 0.9338034265 1.608699653
-5.360050718 0.9334694286 1.31558509
-5.379181168 0.9335351274 1.217348107
-5.065365678 0.9318931087 1.356370651
-5.22498028 0.9328455603 1.591683766
-5.384310405 0.9335856911 1.276983674
-5.207884908 0.9325391332 1.033084949
-5.204453536 0.9326249112 1.305281143
-5.078449055 0.9319829517 1.406376325
-5.06899415 0.9318190941 1.112091032
-5.28021507 0.9329469252 1.077572945
-5.519884887 0.9343983008 1.48627591
-5.269733098 0.9328879619 1.07147369
-5.155543579 0.9324058395 1.423094422
-5.136762662 0.9322540972 1.291885524
-5.109921154 0.932034527 1.097313477
-5.063478071 0.9319226123 1.459964849
-5.267986528 0.9330938364 1.633296307
-5.417871464 0.9337951788 1.350525772
-5.073346019 0.9318580655 1.152436264
-5.515303294 0.9343509645 1.427341648
-5.224819654 0.9327778377 1.417234771
-5.395633303 0.933677282 1.356366515
-5.168104953 0.9323177583 1.016188797
-5.281949804 0.9331446141 1.568962524
-5.316844609 0.9331203565 1.013776173
-5.303840961 0.9330561315 1.029493388
-5.158190883 0.932399224 1.368514902
-5.079999939 0.9318834897 1.124981502
-5.257348275 0.9328963849 1.268033231
-5.225652034 0.9327381252 1.301876842
